# 3D point list with one line of data per point:
#   POINT3D_ID, X, Y, Z, R, G, B, ERROR, TRACK[] as (IMAGE_ID, POINT2D_IDX)
# Number of points: 377, mean track length: 5.7584086799276673
11743 -4.2579667015851994 -23.528154973939305 54.981210266658998 25 60 6 0.819232019546423 10 3409 18 3587 19 3581 2 3731
11069 -15.290533490075795 -0.23717087196993775 27.540349965074231 129 167 99 1.5148935375650956 17 8202 16 9300 9 8642
10412 0.99083593677085169 -5.9611544259051161 18.673721408314425 48 86 45 2.6887622463606364 9 1233 16 3820
14143 -7.5672406251416655 -63.604865388649699 101.52787182380837 14 15 1 1.1639950356062752 13 3083 5 46 1 5245 7 5602 12 5414 14 5543 15 5074 3 192 18 36 4 3485
11737 -27.069079743651518 -39.376770045095554 81.939404018952487 154 132 116 0.43648632966526196 9 259 10 3303 16 3177 17 286 18 3475 19 3470 2 3586 5 460 3 535 4 3726
10414 -21.121857676304749 -11.142287964030899 46.472446637262834 48 87 43 1.0611088651714984 9 3953 10 5816 16 3830 17 3785
11009 -2.7377569381862328 6.7418568781687789 19.846489280183508 75 113 51 0.36409079225882501 10 8620 17 8382 16 8728
10416 -8.29367299394338 -9.4358452202446177 39.090098342047035 11 37 22 1.3621624327966926 10 3934 17 3793 16 3860
11526 5.4673803216282391 -9.1637662436364877 33.837564803029025 137 179 129 0.8272688785707274 10 1147 16 3839 18 1386
10417 -13.72197052032017 -9.8928449589799499 42.579566021345492 158 190 142 0.29939854314088754 9 3977 10 1200 16 3862 17 1204
12035 -35.403827729802309 -46.071940288222713 79.745053562416217 57 54 36 0.86691689792211379 1 6828 7 7232 12 6927 13 6667 14 7072 18 7060 15 6631 6 7224 8 7064
10418 -17.494793769281507 -9.9062834103695661 43.24972370664014 22 54 6 1.1061673001953696 10 3945 17 3802 16 3863 18 4087 4 4155
11013 0.6052622269061525 7.7940743212380452 22.574940541781135 140 181 113 0.89325493302120651 10 9306 16 8738 11 8671 4 8868
10420 13.149477780286015 -9.0755917181031247 35.197662243600888 74 124 68 1.0478681320058401 9 1214 17 3776 16 3868 18 4168
13626 -58.945501144060373 -38.21759825971246 84.517691392076628 66 96 65 0.44319842597064585 18 3499 19 3479 2 3543 5 3490 3 3554 4 538
10421 -15.176914278800322 -9.4040600719486918 42.007686751134031 0 23 0 0.4654018548990399 9 4005 10 1222 16 3877
10422 -15.176914278800322 -9.4040600719486918 42.007686751134031 0 23 0 0.4654018548990399 9 4006 10 1221 16 3878
11524 1.1442471898201663 -5.8168801736249458 16.959741370081822 41 75 40 1.2755336376777684 16 1109 18 1366 2 1358
10423 -17.925945404552674 -8.9854172036238662 41.751310148431379 171 197 160 0.53836644812984802 9 5885 10 3960 17 3836 16 3882 18 4114 19 1422
11017 -2.117460870342637 9.1721357376498815 20.465504287640787 11 25 7 1.7166411669201338 10 8681 17 9126 16 8793
10424 -17.208244697195404 -8.3936339477957258 39.546473474205946 33 71 60 0.3596342743416221 9 1366 17 1282 16 3893
11534 3.0358312889104928 -7.2158938866289288 31.732118343799012 91 132 76 0.71916843173778022 10 1287 18 1500 19 1576 2 1667 11 3381 3 1413 4 1560
10425 -0.77782424378840942 -8.13094967758785 35.143781384618499 7 14 0 1.0144642953336096 9 3997 17 3811 16 3894
12043 -27.175168380554663 -46.835578370736961 89.754857915389863 128 124 133 0.38869273271106936 1 6887 12 6984 13 6720 15 6685 18 7102 19 6999 2 7003 4 5770
10426 -0.77782424378840942 -8.13094967758785 35.143781384618499 7 14 0 1.0144642953336096 17 3812 16 3895 9 3998
10428 -13.859069618982927 -8.2531013727968077 40.333890628439441 137 173 143 0.44772190078392282 6 4269 8 4151 10 3988 16 3916 18 4152 19 4068 2 1503 3 4065 4 1384
11532 1.1176029179128226 -5.0064011522799703 16.260042360405528 102 139 95 0.99405094953950202 12 1058 18 1453
10431 -5.0683264314178773 -7.0199491927726259 34.657982929347348 159 189 151 0.63806096641323862 9 4058 17 3872 16 3953
11814 6.3514073629145571 -3.5048782795895415 28.339891016796145 142 184 82 1.0930978427031814 10 6068 16 4134 18 4422 19 4357 11 5462 3 4408
11089 -6.2984273290863673 8.3050929560353364 18.622027018936286 0 5 0 1.2710008397168293 9 9597 10 9755 16 9481 18 9962
10432 -17.683858939146869 -6.9048311644158922 37.347349761103985 0 12 3 0.37983800302328463 9 5945 10 1332 17 3900 16 3957 18 1468
12115 -1.9281699809632067 13.01565297015221 21.25681716749321 177 200 118 0.39965715453303013 16 7973 18 8074 11 7337
10434 12.242842674888221 -7.0055100609076417 32.609074838536209 40 78 63 0.62103981689260424 17 3860 16 3972 18 1613
13857 -10.891694684039081 -53.288060213040026 94.824992022468905 226 211 184 0.15245487128772531 18 7068 2 6981 3 7148
13648 1.7300055251919544 -6.1809466081941267 19.424802977170387 0 0 0 2.0639750776205505 9 3912 16 3818
10435 -5.0660809888742717 -6.3894714794804992 33.563588089173201 144 183 138 0.79386399489324666 9 4084 10 5931 17 3901 16 3978 18 4228
10436 -13.170277393845478 -6.1755703755523381 37.577275606333302 168 202 135 0.34384684380228187 9 4124 10 4063 17 3935 16 3990 18 4240 19 1564
10437 -3.9236069350754694 -5.88000089393043 33.252414897240342 83 125 72 0.58543356437488159 10 4066 17 1369 16 3994 18 4255
11822 8.6647287455509137 -2.1361651516751983 26.053989635397752 144 182 109 0.62213142816640377 10 4310 16 4204 18 4493 2 4591
11097 -2.0924659252085709 11.321666965739205 21.668650756548328 18 26 7 1.6206018589754372 9 8914 17 8478 16 9516
10440 -12.606507873977638 -5.3594283823489439 37.256819289427568 140 178 113 0.39553270270932928 9 6003 10 4101 17 5700 16 4024 18 4271
11614 -3.0416696648302324 1.5958759278020578 15.363843821427418 45 86 43 0.8035391873583918 10 2068 5 1713 11 3914
10441 10.454422845663153 -5.467167221923023 30.944194799756243 165 200 122 0.53804661365486561 9 1462 17 1377 16 4030 19 4310
14175 -11.302570349414879 -59.286875707126619 100.19357305064804 221 195 167 0.40468353223019404 7 3426 8 3288 13 331 5 187
10446 -10.236825587208692 -4.3225560777334469 34.973967941113109 17 36 17 0.4761421537786571 10 6014 17 4005 16 4067 9 1614 18 6167
11821 8.7362779647347484 -2.2432519709416385 26.044883148202519 40 70 41 1.441153430498787 10 4309 16 1668 18 4487 2 6286
10447 -18.335396599715914 -3.5204063747057246 32.239187757281989 3 19 1 0.99868464132735835 9 6051 17 5750 16 4076
11830 7.3971657742100119 -0.53843228842369295 25.978558525854435 41 77 39 1.1429890221220207 16 1781 18 4571 19 4527 2 4645
11169 7.7464498738176406 8.2715900750779561 17.365023020885999 119 169 96 2.0830800089737416 17 9598 16 10013 5 10131 3 10252 4 10404
10448 8.515888337310221 -4.412613386258605 30.535794550123491 8 36 5 0.62354415645697825 10 4186 17 1466 16 4096
12848 -10.088796349869208 -66.716529432928695 102.11230520139046 136 95 57 0.81109879805774288 1 5187 7 5554 12 5369 13 5066 14 5499 15 5035 19 5229 3 5435
12195 -5.6184171231507305 6.1032440464508895 20.40662064162963 154 193 49 0.21478155155680284 10 9276 18 8787
10450 -6.1876036785170863 -2.473136999839527 14.027804269915519 138 167 136 0.060011193423883544 14 1572 16 4102
11173 -7.177888947808019 11.316177985723472 17.407651775234058 20 35 12 1.8673119642371621 10 9390 16 10026 18 9589 1 9520 19 8829 11 8744
10452 8.5270743490379388 -4.0352426250413078 29.152260469731651 0 7 0 0.76747189405625293 10 4202 17 4008 16 4107
10453 -17.920042015590841 -2.8935675114962303 31.903748080383274 144 182 122 0.56500807435372569 9 4270 17 4054 16 4110
11684 20.254805357328021 -61.477248125537734 103.08464987761506 29 38 17 0.6743695597497561 1 377 6 145 7 343 8 138 12 389 13 329 14 434 15 292 18 3223 5 320
10455 -17.545391567311398 -2.8032262720474557 31.966407309220248 103 142 91 0.52834984513537342 9 4273 17 4058 16 4120
11838 7.5796185647526686 0.85594264954419919 24.341790490879806 16 41 15 1.0207936292182902 10 4491 18 4660 16 1886 19 4596 2 2250
11177 3.8511636043377266 11.799415690415829 16.488616147492287 139 184 84 1.3439557559507369 9 10115 17 9659 16 10070 5 10161
10456 0.034265900997814111 -2.6991293165295054 16.00472110935403 120 151 109 1.2366758013440704 10 4211 18 1806 5 1121 3 1166
11181 -26.31406355278061 -38.524877038001321 81.201244462498451 183 163 152 1.1352434039821984 1 9575 12 9830 14 9908 16 10089 18 10091 2 9803 5 9955 3 9896 4 10059
10460 -17.507602311809475 -1.6041953989720634 30.142582756548123 148 186 135 0.49565064717649993 9 6111 17 5804 16 4166
11837 1.3051137660982244 0.28889943152940833 16.304998285763066 12 33 6 2.1308697722389218 13 1795 15 4153 18 4643
11692 -41.088327966913354 -49.499246374824182 82.896114464809074 70 117 67 0.99046412924423644 1 5254 7 5631 13 5140 15 5110 18 3243 3 3267
10463 5.1597133671758231 -2.4878892389740379 26.944449421414582 132 172 124 0.93010577487993329 9 6070 10 4273 16 4178
11121 -9.3221583752062713 -21.489581023941611 55.647721591985139 94 127 58 1.2089777693860384 9 10148 10 9490 16 9689 18 9112
10464 -6.458436050364555 -1.7415560894114366 29.799492401580306 11 30 19 1.3428930476973786 9 7511 17 7135 16 4187
12147 -37.946200815704444 -36.369081285558046 76.38782335346292 213 219 195 0.73601008447572869 10 8109 16 8181 17 7822 18 8275 19 8182 2 8109 3 8240 4 8370
10466 -7.1009572789834925 -1.2948133160413748 30.545378092293227 26 60 28 0.61001332990806645 9 4327 10 4299 17 4121 16 4202 18 1868
11125 -1.2085835305868819 -18.866829176354134 51.004914730045655 0 0 0 1.9836979428177435 10 9497 17 9339
10468 -4.0940912454133667 -1.1611867575157158 27.20283742314945 51 89 38 0.54172767516730624 10 4314 16 4211 18 4479 5 4266
10469 -8.0319455218756666 -0.72271865087448972 31.034959737935157 2 8 1 0.32350449473992038 9 6134 10 4317 16 4215
11129 4.322372729933047 -13.72677991981076 39.899796784770743 11 44 15 1.5935049001492825 10 9516 16 9713 18 9153
10472 -2.6983303570261903 -0.87371400290990986 25.8644113167509 117 159 119 0.44287537983386621 10 6148 17 4141 16 4222
10473 -14.99076322801648 -0.073026237687351087 27.37985492028233 153 189 116 1.4754524768747419 9 6165 17 5854 16 4224
12155 -2.802057521144707 -17.015740330068411 45.262514647217301 143 175 114 0.92850770982285502 10 8190 16 8264 18 8357
10474 -6.4560742908271713 -0.51858965958404146 29.663933224285444 110 147 97 0.43477177377905063 9 4354 17 4147 16 4225
11133 11.029033967344281 -11.678782445835159 38.281600643488048 143 187 136 1.1440270055422694 16 9746 17 9376 18 10126
11073 9.2861218006147475 -0.73534132853587064 25.350609968980059 9 28 5 1.4548374657851537 9 9393 16 9324 19 9289 2 9626
10480 -13.8523886328238 0.35955951093250677 27.090909642880309 144 184 120 0.90991346530616291 9 6181 17 4172 16 4243 5 6094 3 6151
10481 -15.14959196284862 0.57987971409955652 25.778650380961587 134 176 84 0.90905985282348123 9 4418 17 4186 16 4250
12099 -0.5227180918869222 2.8034819102691788 16.863035747568336 53 102 13 1.6201647485937798 10 8565 18 7813
10482 5.3078424436137723 -0.5965524791237129 25.835245755710236 144 176 136 1.0799990697611861 9 4352 16 4259 18 6326
11077 -15.326770281279096 1.7230552741447533 24.941233092337416 25 43 19 0.9586808067581023 10 9181 16 9336 18 9364 19 9243
10484 -5.8368383724692858 0.37568055370165143 27.081164166472231 128 165 115 1.1756159754820157 9 4403 16 4267 18 4535 10 4384 19 1936 2 1945
13690 3.924397081578785 2.7255838997519786 16.399276700280137 161 194 141 1.8954809597169067 9 2157 10 4664 11 4039
10485 0.5717976243303059 -0.65741029809910745 16.012082549718418 0 0 0 2.366269584813562 8 4384 9 1869 6 1886
11081 3.6930059505354649 2.029738486736405 24.097220968811229 28 75 21 0.40434005240016474 17 8992 16 9363 18 9408
10488 -13.193593244134817 1.3158817309208657 29.289691333564623 1 13 4 0.62009330384354167 9 4433 17 1766 16 4285
10490 -4.7068091395964604 0.04978004805520201 13.559349793831052 0 0 0 1.3917340529399498 9 4470 14 4539
11085 -5.6916704976632779 7.4374590463701047 20.897644869285088 5 3 0 0.7732460127875852 9 9535 17 9085 16 9445
10492 -12.009124725814113 1.8743049945535726 26.93667354161704 118 156 102 0.59970766992447144 9 1962 17 4233 16 4325
10496 -4.3396726504924263 1.7993284610325786 25.705980883065678 126 172 12 0.28318163659870127 10 6239 16 4350 18 4621
10928 1.473320939388175 12.734922956308925 16.566749663195001 80 129 55 1.2446630044858151 9 8118 17 8615 16 8110 3 8928
10497 -4.3253917151203183 1.7877319528939681 25.668965499563662 126 172 12 0.73586800292707433 10 6238 16 4351 18 4620 19 4528 11 3885
11954 5.4405829664940901 -10.870444349183854 36.29530586701275 148 186 137 1.0105640909850659 10 7235 16 5703 18 5959 19 5906 5 5864 11 6569 2 5964 3 5996
10499 -4.1647227759832743 1.8255038469925027 25.745825076589618 150 188 5 0.37149063152057787 10 4475 16 4357 18 2076
10500 -4.1819196252267332 1.8371088697237152 25.820567411723136 150 188 5 0.3275534239488288 10 4474 16 4358 18 2075 19 2072
10932 0.95232440284069908 -23.095178649196573 55.088300849589949 121 160 119 0.69433035506734386 10 8131 17 6725 16 8205 18 7218 19 7114 2 7136
10501 -14.526693169913754 2.4299747324571008 22.929280792410903 181 201 147 0.99650905509652055 10 4479 16 4369 19 1985 11 3873
11441 -39.901382243298578 -38.217332210834712 77.969258172803919 169 192 140 0.37228162587230829 1 3450 18 444 3 391
10502 -11.27323971565265 2.6377173046658 25.608462439637638 6 19 10 0.7642618742394075 9 2015 17 5949 16 4370
10503 -10.240106308822012 3.2849554747347391 23.080445451356411 0 13 0 0.63276310429588745 17 1922 16 4417 18 4675
10936 -10.841370356684116 -23.969876733637843 60.484076905481494 233 218 187 0.87214923676425316 10 8151 17 6755 16 8219 18 8322 19 8227
10505 -0.56448415514933126 1.7024158106574394 16.733816770665914 129 166 74 0.71787899151300383 10 4573 16 4433 18 2185 1 4320
10506 -3.2601410618361362 1.6683593827899574 14.601602668877492 0 0 0 0.70332076164710888 1 4313 9 4547
11962 -16.097519443090821 -7.1956411898689847 38.731671870931393 6 16 5 0.43796176436257889 10 5914 16 5847 18 6072
10507 -9.8729542543620283 4.0496973450762193 24.329986180029472 30 64 31 0.25359713305345999 10 4561 16 4435 18 2166
11455 -43.730451267729208 -34.417371976519149 78.607185591987744 254 254 254 0.44707346161502715 10 365 16 367 17 3237 18 582 19 597 2 715 4 635
10508 -9.5529996387698031 3.7535563345400762 22.37993261410643 138 179 107 0.18255792109483657 17 6007 16 4438 18 4712
10940 -25.798831819863434 -25.554201902814718 67.79950494526453 95 125 75 1.0456875260749932 9 8295 10 8174 16 8241 18 8326
10509 -0.95542253245770437 2.0662621067460036 16.689436657023098 134 172 108 0.66041916856273741 17 4309 16 4444 18 4737 2 4661
11449 -30.579196671385343 -39.06297965254565 82.777648512125751 253 231 218 0.33078980340136199 12 3589 18 490 1 636 7 711 13 615 14 779 2 693 5 471 3 550 4 646
10510 -13.659292632253081 4.2328080077031913 22.170772167084735 8 13 6 1.4085749673129453 10 6315 18 4710 11 5705
10512 -10.021309787948097 4.3665095200748558 22.551083857554939 33 79 30 0.31576605017365761 17 6027 16 4452 18 4727
10880 -10.684011514726258 7.6745229648506683 19.537706459794165 6 42 2 0.19109501399010856 10 6488 16 7758 18 6592
10513 -13.348948340388949 4.9025214588183683 21.854254547487962 7 24 13 1.2754713673643603 10 4601 16 4477 2 6303
11906 -28.518681246137753 -54.697115846161829 95.045184766653108 76 69 61 0.63719927731127235 1 5313 6 7225 7 5671 8 7065 12 5492 13 5178 14 5617 15 5150 18 5458 19 5374 2 5433 5 5423 3 5519 4 5671
10515 3.9835370265195866 2.4604790739504088 16.562092257772488 151 183 134 1.5354797626080323 10 4652 17 4335 16 4496 5 4469
11399 22.512755192949619 -54.240409570766012 94.667084201421744 255 220 248 0.75327866339275229 6 216 8 222 18 265 13 397 14 504
10516 -7.2541336823193534 5.255546115225834 22.981401893742685 6 11 18 0.50395277850300124 10 6369 16 4504 18 6485
10884 -4.3661535648497507 9.3973310486521218 22.063405991196433 22 52 28 0.65023693713769981 10 7813 17 7471 16 7805
10517 -7.2541336823193534 5.255546115225834 22.981401893742685 6 11 18 0.50395277850300124 10 6368 16 4505 18 6484
11393 4.7692721176644302 -53.979659510150448 93.009539197157579 175 113 155 0.4628951776352368 1 406 7 379 12 426 13 366 15 339 18 242 19 302 2 553 3 431
10518 -10.861390857276378 5.3078239364596307 21.652964098468285 150 190 96 0.81179041605562974 9 6378 10 4627 16 4507 18 4760
10888 0.89242023181173602 7.9919537399011462 19.666691756160741 143 185 122 1.4865158070648423 9 6496 10 7842 16 7822
10521 7.9052373038610311 4.7423458227178648 22.843549560633264 22 53 33 0.59246971712191732 12 4684 16 4543 19 4786
13461 -4.080352995671106 0.03629871719568132 14.491885063302012 92 124 77 0.67326513882715444 10 4447 5 4116
10522 2.8906157470215463 3.490207165474227 17.006619358719284 140 173 94 2.5181502384093237 10 4683 16 4544 18 2350 19 4748
11914 -25.889055283625989 -53.057620444796434 94.231180466265727 103 93 93 0.39801433657222068 1 5345 6 5642 7 5694 8 5472 12 5518 13 5190 14 5635 15 5175 18 5473 19 5396 2 5449 5 5464 3 5558 4 5702
10523 -12.830803686946183 6.0267135311494533 20.081015604004094 1 8 1 0.84719555247894185 8 4743 10 4666 16 4550
11407 -34.706999881408635 -45.731333323095363 80.153541948077716 76 110 20 0.73875380386499678 13 385 18 279 6 3430 14 3554 8 3335
10524 -0.71330455762688982 3.773450291354969 16.489772637649111 97 135 22 1.2322211749759275 1 6228 10 4681 16 4551 5 6285
10892 -8.7004900750099257 9.4670424958339652 18.181310654820251 20 40 13 2.0293001564004811 9 7937 16 7858 3 7789
10525 -4.6801728313183775 5.1824445426037258 19.431326484094249 133 165 100 1.1332853510074508 10 4677 16 4557 18 4821 11 7076
10526 -2.5237152981888582 4.421295654482015 16.98502379153306 48 92 5 1.8232756152492466 9 2281 10 6446 16 4572 18 6543
10527 9.2752878887023478 5.3683366358986868 22.159467385180939 4 9 0 0.59431908775071696 1 4515 16 4589 5 6421
10528 -12.647337805517294 7.1600811109043514 19.797160273276685 32 89 8 1.0638108075648014 10 4717 16 4610 11 4141
10832 -9.1791899759990603 -4.1241742332538411 35.118764437376825 149 188 133 0.49605833048240505 9 7456 17 7083 16 7387 18 7553
10529 -0.83350197543261306 5.3353131157609637 18.040544851262307 134 164 16 0.51720410174753761 10 2327 17 4436 16 4611
12231 0.18868259540860699 -22.169870518769486 54.512698448043345 11 21 12 0.52569364568981969 10 9482 16 9685 18 9103 19 9035 2 8928
10836 9.6026186057272174 -3.9447917491942266 28.944011150640954 20 43 17 0.88798819509897942 17 7081 16 7416 9 7445 18 7605 2 7510
10533 5.0496254400384242 5.9339409627808299 20.417197523502914 18 41 22 0.77453033595998722 17 2183 16 4632 18 4897
12224 -39.150090224357314 -47.115971080952043 82.430391328339212 2 11 0 0.96210717558561398 6 9839 8 9687 18 9049 1 9186 7 9745 12 9455 13 9117 14 9513 15 9058 19 8971 5 8958
11345 -7.2778199175450551 13.86432916860168 17.715174417898147 29 48 19 1.5668944042484987 10 5241 17 2885 6 5475 16 2868 9 3036 18 3055 5 5062
10534 -1.7206242164064542 6.1599535619890062 18.469268346364689 72 119 15 1.1617628647944029 10 6502 16 4637 18 6600
10538 -0.71408139465560039 7.0885716539271204 19.815025426413872 163 193 106 0.68416138099647783 10 4804 16 4661 18 4917 19 4836 11 5896 3 6540
13269 -8.4269381377259371 -12.415021093134758 40.514780494098453 147 176 138 2.3678261410218946 10 10377 19 10462
11866 -7.7372044624085454 12.534356049321774 16.447010416768958 38 71 41 0.066067728952856397 9 6869 18 5275
10539 1.0344399498845731 7.9953055232708312 22.439231740581072 158 183 99 0.17695205502925385 9 4733 17 2270 16 4663
13262 10.637586737354672 2.9064575039936931 25.153119631193572 159 197 120 0.67885672495579064 19 10407 2 10229
11359 19.487076788679008 -63.228987159162131 102.66562439862275 56 71 25 0.95924655053386854 13 264 18 83 5 242
10540 -3.0268014170965607 9.548176244190028 24.040167229312257 0 3 2 0.50915026161953791 9 4761 10 4814 17 4518 16 4678
12239 9.1812304328442487 -9.4080637456177634 33.967898951864086 156 198 134 2.2347984092168574 16 9164 18 9214 19 8384
10541 -11.051695897660906 8.4751050272263981 19.397741874810357 48 88 35 0.31239851390799039 10 4802 16 4681 18 4911
12232 -3.3861407026034653 -18.097240505624061 46.219449280991185 156 189 110 1.3418032273413967 10 9491 16 9692 18 9116
11353 19.295566909110381 -63.39526592834676 102.2840393577268 159 181 102 0.54345082318712157 1 279 6 53 7 244 8 50 12 285 13 254 14 344 15 209 18 60 5 222
10542 6.8117302391374857 6.5259068496522836 19.362447976048205 66 101 68 0.81062611728356104 9 2352 16 4685 5 4714
10543 1.4969570940014005 7.5204508742211855 20.107521702445876 18 58 0 0.47715153169409819 10 6546 17 6184 16 4688
13475 -4.2431798379514714 0.62175044884056485 14.768961105880742 141 176 133 1.5745068517239866 2 1944 5 1532 4 1644
13266 -3.4466368597241948 10.345176932418166 18.33603211326125 9 22 5 0.90801872363376623 16 10592 2 10255
10544 8.5432792348129816 6.525737592549401 19.652577593068738 139 184 103 0.54837461635168017 17 2265 16 4689 18 2592 2 5021 3 4948
10912 -0.5487035426931276 12.028554986071009 18.347493943219213 14 16 7 0.097646089030174327 9 9002 16 8016
10545 4.368542569655963 7.2456444433134433 19.317548471451499 173 195 148 0.57447599965914065 10 6569 16 4713 11 5955 18 5003 3 4882
12247 -8.9763835222289377 -1.8902546099082644 33.171155378952378 125 162 109 0.44135214723486199 10 9136 16 9288 18 9303 19 9211 2 9083 11 8513
10916 -3.8520006528001454 12.450603159986505 17.516821734918867 51 80 55 0.89300492702354783 10 8002 17 8577 16 8038 11 7387 4 8954
10549 -5.8607164586786471 8.4423021130246383 18.250734058537123 175 209 149 0.68175588348033178 10 6570 16 4751 18 6668
12240 5.9975100418545884 -6.9569409914040863 31.357162824705107 136 179 133 0.52744365223935208 10 9068 16 9203 18 9238 19 8418
11425 -0.64123400318311286 -47.694913229620965 88.105438350443947 148 177 121 0.51312299842004083 9 14 15 441 18 357 6 3493 8 3394 12 544 13 468
10550 -0.30245893185477246 9.6170927806626789 21.838567276862445 16 35 4 1.0247587695626934 10 2536 16 4759 18 2618
13493 -4.1344441624066679 1.3483126858762802 14.568325798801235 46 88 40 1.0369273793989713 14 2161 2 2030
10554 -2.2842110402274884 11.588882510805462 23.643423112429865 50 84 38 0.39034514048721308 10 4905 16 4788 18 5042 5 4813 11 4374
11946 -7.7833932491215627 -14.4016273720024 42.427819660526929 159 186 141 0.97960793761447496 10 5645 16 7130 18 5856 19 5782 5 5755
10555 -2.2842110402274884 11.588882510805462 23.643423112429865 50 84 38 0.39034514048721308 10 4906 16 4789 18 5043 5 4814 11 4375
11439 -39.319099046781652 -39.852129615061784 79.847700940927396 181 203 157 0.29225457575842823 16 206 17 3139 18 430
10556 7.2700576729197977 7.4174939007879823 18.0205173769317 200 233 93 1.8932275065424653 17 4566 16 4794 2 5130 19 5027
12255 2.6815794652852731 -0.77228205153210117 25.863093114542284 27 66 38 1.3432305106277205 10 9648 18 9345 19 9746 3 9183
10924 -1.2925360453962791 14.228919581340296 18.601893547992848 19 19 7 1.0992672517181674 17 7716 16 8081
10557 6.0491509011680202 7.5409038377555655 17.29143757633685 41 81 4 1.0948405569131137 10 6651 16 4822 11 7279
12248 3.5609863321125137 -1.9158650557547949 25.807010949281768 126 164 127 1.0140880963081405 10 9142 18 9326 3 9160 4 9345
11433 -22.304457669903858 -45.769476629207503 88.878532209900129 233 209 191 0.46628455214719289 9 114 16 133 17 176 18 391
10558 -7.5419220966580873 9.6204410375181624 17.818834405640445 150 184 98 0.95429470387755932 10 4928 16 4826 18 5045 19 4896
13998 -14.594105153684408 -5.9223443524061441 36.133457735343136 5 12 1 1.0794933805577385 19 9154 2 9015 11 8980
10559 -7.5968413408259323 9.6764833949253894 17.918671282456046 150 184 98 1.0205559801472039 9 6635 10 4929 16 4827 18 5044 19 4895 3 4777 4 2417
10992 -5.8914803442230506 0.15583534284915146 27.200646953334957 144 177 127 0.72187587239766238 9 8654 10 9166 16 8568 18 8652
10561 -2.8577076140955393 11.179628298171425 19.798905368604533 13 28 6 1.6124702750678728 9 6665 17 2555 16 4876
12018 -33.025330665009804 -57.378803777685839 93.185306325331638 10 17 10 1.1574205522161465 8 7018 14 7049 15 6602 18 7016 1 6811 6 7184 12 6908 13 6642 19 6902 2 6881 3 7035 4 7202
10563 -8.5257658975151731 11.086595109888306 17.673110319403019 27 67 43 0.8720456367879359 10 2758 17 4738 16 4895 18 2787 5 4825
11511 -22.956878868788451 -13.777746271771772 50.681226317096915 25 57 36 1.3549799502173663 16 3753 18 1189 9 3885 17 3702 19 1224 11 3318 3 1017 4 1158
10564 7.5763089605961733 8.6225615013319938 17.270414373784547 89 141 76 0.78572227362976577 17 4672 16 4897 18 5207 5 4920 3 6871 4 7083
10996 -12.350937383868091 3.6655660855577681 22.695158483040302 34 77 33 1.0951476663320256 16 8632 2 8447 19 8560 5 8556 11 8567 3 9172
10565 1.8361871452886533 9.9115051670452239 17.851116610452426 127 173 80 0.65048033226113278 9 4933 16 4910 18 6823 11 6102
11505 -25.782979846853287 -13.982719634476419 49.76907519909458 135 170 124 0.43666598669296297 9 1115 16 991 18 1149
10566 -6.0125273630409151 11.457212697879129 18.015489964705829 129 175 32 0.57258741119228385 17 2664 16 4929 18 5177
10567 6.3894481198566986 10.759196481708205 18.885911120213034 13 29 3 2.3088664749753236 10 7980 16 4967 11 7412
11000 10.185109701056692 2.3495440931029736 24.031953316691094 9 3 8 0.99209970094782751 17 9009 16 8637 9 9446 2 9235
10569 6.6639342646837365 10.366955493029144 17.287948647331003 146 188 87 0.49763859310888242 10 5236 16 5041 18 5315
11519 -8.3417528682820077 -10.334153533649511 40.927390642200621 45 84 5 0.66702463315778637 10 1154 16 1158 18 1347 19 1392 2 1458
10572 -1.0977521751237369 13.134268868503307 19.103107538235367 9 21 7 1.9500706566598986 17 4841 16 5063 9 2876 18 5283 11 2446
11004 4.7391590610548668 2.2154364665210493 16.324618298452148 105 141 52 2.1374208285764085 9 8741 10 9253 2 9663 6 8848 8 8718 4 9858
10573 -1.6018874751366967 13.583944432970849 19.575247890291916 17 38 6 1.7546569972535215 17 6464 16 5066 9 8056 18 8149 2 7966 11 7406
11513 -22.09890635584172 -13.167187413692901 50.665601024586323 37 70 25 0.37471269776177318 10 1081 16 1085 18 1237
10574 -3.0476067990272648 12.925900098146025 18.228493489736351 2 13 0 1.9634275808251398 10 6821 16 5069 18 5280 2 7928 11 4651 11 7396 4 5211 4 8138
13507 8.5187127954371391 0.39021107976297881 25.094151584507419 155 193 144 0.86907895831922533 19 2140 2 2230 4 4795
10785 -21.944321792507601 -28.695948496734811 72.615273283153712 96 91 59 0.81643925737719558 9 7100 10 7078 17 5270 16 7041 18 7220 19 5631
10576 2.2888272348565972 11.666539829844801 17.32118852901618 19 45 22 1.0141922736866844 10 5260 16 5088 11 2541 18 3089
11302 -14.16826804164954 0.081714493570579139 27.204674934797431 43 87 53 2.0278686507212025 6 6450 13 5939 8 6280 17 5858 16 6079 6 7784 17 7171 8 7639 9 7569
10577 -5.2023074603427553 13.12659093891828 17.65089445042582 134 176 67 1.1529334087859484 9 2952 17 4893 16 5091 18 5294
10579 6.7948400978081018 10.301222770592437 16.208005056098248 142 183 79 0.37302156056723312 9 5066 16 5101
11463 -26.369873140201129 -31.886715175644945 76.742270461053479 38 67 16 0.38931796356825776 14 3843 15 3395 18 649
10789 10.295696936306184 -21.464744890730749 53.61387479253527 60 113 14 0.29265901931309291 9 7088 17 6753 16 7059 18 7255
10580 -2.422603858852169 14.466609494410395 19.712952946116033 20 27 7 1.0758447158353339 10 5245 17 4885 16 5102
10948 7.5780223307225798 -14.920276594466062 43.912650145426483 23 51 16 1.6985767512824357 9 8328 10 8219 16 8300
10581 -5.2366784343126067 13.111355159716203 17.316478715815826 22 47 10 0.64830487337981679 10 5242 16 5103 18 3062
10793 10.475799208048995 -20.400389000036824 52.157954541115394 21 57 23 0.3271170770222438 9 7104 17 6761 16 7069
10584 -6.2715649997362766 13.289116355377468 17.104014352161261 163 190 144 1.2768317557950293 9 3032 17 2886 16 5121 18 5321 10 6851
11310 -5.0081005862018353 7.7449961730577774 19.765908736053923 152 193 130 1.4583641006901904 12 9968 13 9651 14 10055 15 9606 7 10316 1 9726 6 10137 8 9993 16 9966 17 9848 9 10297 10 9751 18 9959 5 10099
10952 0.21261952064267373 -13.40987546001136 40.771462753157053 146 177 136 1.1910843176404931 9 7214 10 8233 16 8311 17 5413
10585 -6.2805130680972709 13.303251928240918 17.124229912045934 163 190 144 1.4773552337352083 9 3033 17 2887 16 5122 18 5320
13525 -6.2272117745442932 9.6624604716521922 18.358198767954409 157 175 127 1.3163319503457434 19 2588 2 2564 11 4345
11819 4.4059703893955717 -2.7037112671273107 27.355553022387873 133 164 115 0.79347719138856598 10 4264 18 4458 19 4380 2 4512
10586 -1.5722553146963281 14.638214940099273 19.640137008395318 31 42 11 1.2856246436035954 9 5140 17 4909 16 5127
11471 -38.034936822664612 -29.383593787779041 75.669392874126387 223 224 218 0.56197926338664617 8 825 13 876 15 834 18 717
10797 0.68393664919670871 -15.678813052416626 42.851433655203046 119 154 121 0.50323375730883591 9 7161 10 7133 17 6806 16 7105
10588 -7.6644834800332839 13.870528518171895 17.371469617401004 73 106 63 0.93243542224035048 17 4955 16 5130 18 3077
11465 -42.833491213832261 -30.993448433834729 76.296104183370062 237 240 245 0.53336630798123219 10 463 16 455 17 538 18 655 19 671 11 117
10590 -3.0875636704257099 13.788044865988168 17.641336060478555 65 102 68 0.66896472218979486 9 5192 17 2918 16 5155
14030 0.050299330787930363 -5.4910138404818785 31.336931867955641 126 170 109 2.0422962469784536 19 9179 2 9541 4 9772
11308 2.3881050720952857 8.9371636900266935 17.814274236759395 14 41 8 1.6394063946818256 10 7906 13 9002 14 9810 15 9366 7 10062 12 9324 14 9384 15 8941 1 9460 6 9029 8 7967 16 7902 5 9839
10591 -2.9527862066064281 13.814408079926494 17.487513556863583 18 40 13 1.503700887834948 9 5203 17 4971 16 5169
10592 -7.5808514108209195 13.705680865678474 16.331081137060753 131 176 76 0.76927755666515385 10 5309 16 5174 5 5120
10593 -0.53345939119395258 14.376865926316999 18.374059864116919 29 55 14 1.0920282618388697 9 5194 16 5190 5 5204
11922 -8.5343435983179994 -46.945221298665558 88.60898399391229 230 214 174 1.2329276589106768 9 5266 10 5337 18 5530 19 5466
10595 4.5846901432886913 12.462645553367951 16.769148664932221 33 66 17 1.6155853459406773 9 5161 17 4946 16 5212 5 3049
11415 5.9195248165735856 -50.797324253120685 90.948193112192229 244 230 252 0.35410868016990915 1 470 18 308 2 603 3 514
10596 5.1866756402011065 12.70647353004426 17.019255403640358 110 154 75 0.83281716896559743 17 2909 16 5224 5 5271 11 6424
10900 -5.7921378382786823 11.508749250737242 18.875702861689696 141 169 123 0.65636878523734388 12 8780 13 8463 14 8855 15 8414 16 7945
11409 -33.423130971344435 -47.860634091345283 84.309066445846227 74 102 24 0.70315994947367344 13 391 15 369 17 25 18 283 19 314 2 446 5 117 3 200 4 341
10598 -34.381146322253073 -48.511677277159187 88.233928545422231 59 54 51 1.4867655874456742 8 3384 9 5242 10 5325 17 5042 16 5273 13 3249 14 3603 15 3189 18 3346
10599 23.615543388648057 -49.622790106484125 92.36407257517024 223 212 242 0.9407567262362424 6 5683 8 5512 13 3277 15 3216 17 5049 16 5276 7 3553 12 3516 1 3434 18 5523
10904 -3.9498920301201705 11.288117262451328 18.264606497079747 19 35 19 2.0035383013682693 9 8011 17 9194 16 7969
10601 -40.94077013014499 -38.607297606442359 78.007484328038657 136 163 110 0.79411179931155962 1 5427 6 5751 7 5786 8 5579 12 5610 13 5293 14 5741 15 5276 16 5361
10602 8.4466738933828349 -30.648806658656504 68.49724991609304 38 63 5 0.68722222490398976 9 5379 10 5444 17 3220 16 5420 18 5639 19 5597 2 3749
11930 9.1593645630483422 -32.668940076269159 71.081405796880446 222 209 192 1.000120360600163 9 7009 16 6968 17 6675 18 5626 19 5587 2 7110
10603 11.223227517388638 -29.985699448524272 67.187439308292099 31 60 58 0.70707181635036664 9 5381 10 5448 17 5195 16 5422
11423 -10.4495269737325 -49.386728365574569 91.65017526262011 228 210 171 0.3672587813198378 9 31 10 13 17 115 18 355 19 415 2 601
10604 -6.2642823367862537 -25.270745215917099 56.936490169161431 135 160 102 1.4396800268590648 17 3234 16 5431 9 3363 5 600
10908 -2.0821005986047494 13.245998223868799 21.036843151846728 138 176 72 1.2489595987321513 1 8573 10 8772 16 7983
10605 11.991217764513728 -21.803957798039683 52.869215783073265 21 63 6 0.62249421507157388 9 5445 17 5251 16 5478 18 5724 5 5754 14 7211 13 6809 15 6767 6 7367 8 7218
11417 14.286504525865718 -52.403583185860818 94.913382096486927 202 162 199 0.69450372201930921 6 298 8 299 17 45 18 318
10606 14.004209490945584 -20.617334927974582 49.793732558928383 102 148 89 0.2483275077340649 9 5446 16 5479 18 5732
10607 -27.368907955818148 -29.534624410823671 75.151643460395363 101 121 72 0.69207856620102803 9 3482 10 5537 17 3337 16 5482 18 7214 19 5621 19 7102
10608 -17.537309428698833 -28.218347441761498 73.074363291439965 235 211 167 0.83098224959964506 9 5497 10 5543 16 5497 17 3365
10976 12.103866961492029 -6.6510608255352421 32.365987002604996 144 188 125 0.52428771926673656 9 8500 17 8078 16 8449
10609 -32.262703379426185 -27.596850849251652 71.957260813016021 58 91 15 1.6443748690890996 9 7128 10 5552 17 6762 16 5500 18 5703 19 3608 2 857 11 3061
12002 -8.2571719919992947 9.1687883296969837 18.38886276818441 129 161 15 1.6129854794965135 10 6578 18 6675 11 5939
10611 -3.018421243340196 -17.337807305702839 45.210588858978824 172 202 137 1.370468093676535 9 5529 10 5579 17 5312 16 5539 18 5769
11495 0.95991150045858809 -15.815941173174595 42.931932705717266 6 33 3 0.54886917502713584 10 670 16 733 18 964
10612 -1.4432290230060232 -18.196655552742467 48.333158753146705 134 166 143 0.58031268638294187 9 5542 10 7112 17 5324 16 5542
10980 -7.230067270363647 -5.4335528472915327 36.04945815702326 8 16 3 0.5138215415757722 9 8545 17 8120 16 8473
10613 -3.2215329580795031 -16.266189723372179 43.083370979913084 114 157 101 0.93513977372285062 17 5330 16 5543 9 5549
11489 -37.59523995074403 -23.922978469914792 71.494034507525413 241 239 240 0.70182412378805747 10 758 17 833 18 897
10614 -9.4124528863849317 -17.298096370602355 47.080644572705964 98 145 41 0.78685318582199271 9 5571 17 5343 16 5546
10984 -5.8098265156831177 -2.5253500136527141 31.835687208534889 125 167 117 1.0625573198370919 10 8420 17 7118 16 8516 9 8603 18 8602
10617 15.210314163880632 -17.824449246806619 48.91004506735765 99 151 92 0.57413773914503174 9 5544 17 5344 16 5559 18 5843
13557 -13.155445973359663 -68.70900580883729 99.284278931981845 37 30 14 0.61284179750779977 14 3252 2 3122 4 3299
10618 5.5420002264859614 -16.128247747452168 44.412855364479078 41 97 49 0.72831435669045452 9 5564 10 7134 17 5348 16 5563 18 5829 19 5791
12010 8.703475707667943 8.3767771670374653 17.178753061301943 92 138 71 0.8340592973030887 16 6602 18 6845 3 8877 4 9077
10619 -4.2743833042328347 -15.820449183714265 44.20063028507969 25 60 29 0.35255898325659868 10 5614 17 5362 16 5572
11503 2.1284910093959124 -12.145128135120251 36.585383488816738 48 90 40 1.4936859599901362 7 1102 18 1144 3 1112
10620 -1.5671107713209687 -15.570364532419639 43.881731334698173 6 34 0 0.81192682979939135 9 5602 17 5369 16 5580 18 7308 19 7191
10988 -7.327281869955816 -1.0688534273534673 29.941289080924825 75 113 74 0.6001231612374085 10 8439 16 8536 18 8628 19 8492 2 8394
10621 -36.831408548921267 -23.436754916668047 71.458540072397938 254 254 252 1.0607720594955954 6 6035 8 5850 13 5551 15 5537 16 5583 2 5718
11497 7.3492384780768694 -15.639274384495323 42.471238526078984 34 81 0 1.4579424013026523 10 678 18 995 19 1103 2 1338
10622 -3.70985800188034 -15.398266397218691 43.676055084338863 122 157 124 1.3284836603570302 10 7155 17 3499 16 5584 18 3830 19 3798 2 1202
14062 -17.419019812017908 -7.7126882961976317 38.792180247731245 124 160 121 0.51115625576678103 19 10194 2 10020
10623 12.795745494233776 -15.613990439627882 44.410079751083195 90 138 52 0.75925498765852661 9 5586 17 5375 16 5601 18 5864
10769 -3.4493650797274777 13.048438444616941 18.138403744458778 139 179 67 0.95147883839208114 17 6481 16 6737 18 6934 2 6760 4 6928
10624 15.417196061341453 -16.494118007767842 47.83888623733813 0 14 0 0.64347926763535235 9 3644 17 5386 16 5605 18 3897
11286 0.23588679588708805 0.97561864503529694 16.215442188254027 134 170 83 1.6967707642581953 16 10764 18 10766 10 10517
10625 11.482548181607914 -15.291192622073019 44.53002688018465 10 54 18 1.5822298527788297 10 5641 17 3527 16 5613 9 816 18 7342 19 7245
11795 -11.131251638571904 -5.7607952340160953 37.397075406246962 4 20 5 0.35626917945518616 9 5990 17 5694 18 4259 19 1603
10626 -25.376941928230465 -15.581380247965564 50.605689156013241 239 226 220 1.878460378604871 10 7188 17 5432 16 5627 19 5778
13328 -7.4530707312503477 10.332839985542817 18.206253962912534 0 0 0 1.6380995273118892 10 10343 18 10474
10627 2.1091781543626182 -12.257974799158433 36.545987181797415 52 98 49 0.78170403563426527 17 5411 16 5629 18 5885
10773 -0.63375604052153256 14.318461215425929 18.430256707076271 140 180 94 1.3171503340212409 9 6887 17 7728 16 6812
10628 11.264861059779687 -14.281869097880621 43.618411808080602 118 158 10 0.13367064039120841 9 5632 17 5414 16 5631
10629 15.965866703117428 -15.764147933119117 48.653052923627399 7 9 4 0.78832460816162309 9 5621 17 5412 16 5632
11284 3.8178042770115437 6.1511701959372465 21.151011435103033 0 0 0 2.2860867313254425 1 10188 7 10797 16 10748 17 10354
10631 -21.805854843171296 -18.525304572573038 63.125042524815441 160 185 143 0.74274388926114676 10 927 17 3638 16 5641
10777 -8.398866944889134 -47.767541420291415 92.430927218894581 230 217 175 2.0260626820587486 7 7286 16 6911 14 7129 5 5578
10632 -21.805854843171296 -18.525304572573038 63.125042524815441 160 185 143 0.74274388926114676 10 928 17 3639 16 5642
11294 -8.3845506945938801 12.00178285534877 16.879894185981719 0 5 0 2.39479496309982 7 10761 6 10831 8 10682 9 10722 16 10679 10 10429 17 10290
10633 -23.193564071607863 -19.107675691470362 66.088214018785706 38 72 34 0.68604555771891573 9 5703 10 5715 17 5458 16 5652
11803 -9.0428705545952308 -4.2353815758175948 35.75913872136524 1 7 1 0.83682742069066174 10 4166 16 4077 18 4332
10634 11.113495803869803 -13.31722174567275 42.471946580334667 22 49 8 1.3085879803615506 10 5704 17 5435 16 5664
10781 -23.60038684427191 -34.241543522178084 79.077135338435966 16 28 15 0.49696953814643563 9 5410 10 7019 16 6987 18 5636 2 5635 4 5902
10636 -23.451715105629958 -15.589350906388093 55.818405935118243 134 168 129 0.99615666173191542 9 5751 10 5731 16 5679 18 3940
13855 -62.327527447472399 -42.324675637920102 85.142055839781449 63 107 53 0.5766890809450167 10 8099 18 8258 19 7008 2 6977 3 7097 4 7262
10638 -2.5199983805702475 -11.858886239668456 39.992894812330327 17 36 16 0.63240261342432358 9 3818 10 5730 16 5690
11292 0.11804455038200595 14.486591323273339 18.278392740836352 30 59 9 1.6369155411202085 6 3224 8 3132 17 2970 16 2993 9 3066 5 5242
10639 -24.328374274225258 -14.420966449841972 52.445709908587787 44 73 55 0.75152258202260236 10 3826 17 5492 16 5692 9 7276 18 3958
10849 9.8565933553685312 -1.4239244265549393 26.986745560165158 123 167 91 1.7214255793209001 9 6105 17 5829 16 7498 19 6285 18 6318
10640 -14.875881705298676 -14.447181688945324 52.014097058474142 150 188 138 0.38717027691975181 10 5742 17 5489 16 5697
11366 -10.383552691751719 -60.169499411553161 99.773668161687269 114 134 73 0.76088062177733562 7 305 18 138 12 3349 1 3240 14 408 5 3300
10641 -10.172301428539356 -12.089951252331568 42.023728776937205 149 180 148 0.78835059989883238 9 5759 16 5699 17 6894
11875 15.259812553359398 -62.032564963712971 100.34684414242237 36 29 19 0.77623273196755604 1 3231 6 5562 7 3365 8 5383 12 3331 13 3108 14 3454 15 3048 18 5376 19 5298 5 3350
10642 -0.31217654695215674 -10.997533823705636 37.796103554207093 8 29 14 1.6171510428096074 9 5752 17 5488 16 5705
10643 -13.811192443349238 -12.708893008454053 47.80154216403907 153 188 134 0.96128299607161249 9 5798 10 5765 17 6921 16 5713
10853 -5.437045648738362 0.18536607231234739 27.127167003763464 32 70 49 0.62406597568711586 10 7542 16 7516 18 6312 19 4439
10644 6.0105260411470676 -10.43976605824774 36.115000463915493 144 185 146 0.27332108650717074 9 5747 16 5717 17 5497
13338 -12.062851971024145 -68.15880966698785 99.70404330774798 146 115 100 0.63203766257567473 14 101 2 166 4 80
10645 -21.633432336892451 -11.366006872160241 43.366239670834162 26 61 23 1.0488687206050218 9 5821 16 5722 17 5517
11364 -15.267320156287886 -61.785036783521598 101.77275579473056 12 17 10 0.5063987326821372 13 281 14 385 18 126 19 197 2 396 5 96 3 214 4 360
10647 1.4015370655974244 -5.9285222753160971 17.334111100225755 78 114 75 0.92616608151955671 16 5728 18 5995
10857 -14.110815483119856 1.2714122092355866 27.526763456978259 135 166 86 0.47228430823322637 10 7554 16 7526 18 7677
10648 -23.652910215058117 -11.307515126311417 45.868922081804598 152 189 143 0.69012413571379128 9 5842 10 3901 17 5544 16 5749 18 4021
11374 -18.800516403666283 -57.355634918258275 96.574246709967724 76 89 61 0.24977451210256235 1 311 6 164 15 290 18 185 3 239
10649 9.6231638984312227 -9.5406518471746526 33.701051065584451 6 23 5 1.0277288550135768 9 3867 10 7274 16 5751
11883 -22.264981664148149 -55.739496954481901 92.893664900322946 5 11 2 1.6605986218797666 1 3227 12 3344 14 3494 18 5406 19 5326 2 5397
10650 -14.652819145377233 -11.524733148315059 45.793338739241676 118 155 103 0.65041395203517605 9 5829 10 5798 17 5531 16 5752 18 4038 5 5862
10651 -4.4469010196998102 -10.303783851610971 38.834324835139952 129 172 82 0.46373267289194942 9 5813 10 5793 17 5519 16 5753 18 4051
10861 10.090352544137884 0.42602082332893532 24.800863752410031 46 100 77 1.6851187783381683 17 7207 16 7561 18 8696 19 8595
10652 -8.9089116162383064 -10.466186849671418 41.584757880134852 128 157 131 0.52825567401132456 17 5543 16 5763 9 7310
10654 1.8415758701638785 -5.4278157855403126 16.95771130709225 130 169 114 1.5728018527129326 16 5771 18 6041 4 3899
11372 -32.400400435446166 -49.301966520588969 82.148334556858842 33 52 24 1.0057155925378602 6 141 8 133 13 286 18 181 2 351
10655 -9.3466449508510099 -9.6796835294169572 40.763320652748732 49 79 13 0.4107365843166268 9 5861 16 5776 17 5574
10801 -1.3410667263789997 -15.056639891905121 43.0718444668125 147 185 122 0.87576784778075301 9 7190 17 6823 16 7123
11318 -16.796461687276373 -22.903265399595583 79.858625198009449 0 0 0 1.9528805282570414 6 6106 8 5917 17 995
10960 -2.9905189665200398 -11.003470164622081 38.471638319158394 167 198 70 0.95446938296528483 10 7255 17 7997 16 8354 9 8401 18 7403
10657 12.931033370990384 -9.1173519785732928 35.060690822664043 130 174 111 0.27728436006509138 9 5815 17 5545 16 5783 18 6055
13360 -56.439392094174856 -54.164178878928638 88.975768684249289 20 8 3 0.85975954565472668 18 134 19 175 2 272 4 114
11986 7.3341499947838154 -0.88450058452143931 26.841199980891769 87 129 60 0.66085933336542768 10 6173 16 6091 18 6325
10659 -16.892880856837312 -9.2147021055921616 41.571503094636363 149 178 139 1.3823925130721417 9 4011 17 3810 16 5798
11479 2.6466365410664268 -21.121794227956119 54.019469855971614 2 22 3 0.36191854326340872 10 3495 16 3415 18 830 19 921
10805 -8.9065301600461062 -12.038214700927915 40.671799354562452 133 170 117 0.4732762715729314 10 7223 17 6883 16 7170 9 7253 18 7369
10660 -23.454895444422061 -8.193104016707542 39.600727247598215 26 57 25 0.68810148212424738 8 6066 10 5866 16 5811 18 6021 19 5911 2 4039
10964 -19.731137411926717 -13.016622883614271 50.964155629789083 31 50 12 1.4516090252514418 9 8428 10 7273 17 8020 16 8370 18 7396
10661 -16.800352594410541 -7.951562129208396 38.902944454804874 23 57 28 0.22255838141217299 9 5907 17 5627 16 5823
11316 -7.4827708751281543 11.826371087602617 17.062874733362108 111 131 86 1.6615507088257904 13 9077 10 9402 14 9469 15 9015 1 9534 17 9228 16 9573 7 9659 7 10120 18 9604 19 8845 5 9428 11 8149
10663 9.5838629896557332 -7.1814837139549281 31.552133397577677 141 181 119 0.66039463420741062 9 8471 10 7346 16 5836 19 7428
10968 -17.946209188775189 -11.935059665951778 48.216899807196583 11 28 13 1.3286384466610084 10 7287 17 8028 16 8377 9 8440 18 7407
10665 -15.637715525560717 -6.9110426584638516 37.130602268960722 154 195 148 1.6153223314794114 9 4091 17 5654 16 5857 18 4186 19 5984 2 5952 11 5381 3 1231
10666 12.075496242900005 -6.7313332453071979 32.038642076129726 137 180 113 0.6133794715356109 9 7346 17 5640 16 5873 18 4273
11487 12.827837571649017 -20.579495367626006 53.153427183919753 11 39 0 0.76918622950072102 10 555 16 602 18 876
10813 11.290643419907299 -9.167105228890577 33.373221879035746 40 85 46 0.79686636443384484 9 5792 17 5521 16 7230
10972 -11.252406573889193 -8.7143793152915432 38.652100544474784 60 102 34 0.57148993138242554 17 6975 16 8406 9 7335
10669 -15.475384037612981 -6.3318582468369984 37.055025451265884 158 189 151 0.57959399746879869 17 5675 16 5876 18 4213 2 4169
13887 0.67089423632420075 -1.1458775143592925 16.556507699284666 0 0 0 2.8370411731827283 10 9159 19 8517
11481 -37.964224319935866 -25.757893974670452 72.890243524563971 232 235 240 0.64692716506423742 6 3896 8 3799 18 837 3 816 4 920
10670 -9.33316409610938 -6.5797613789154736 37.30452431674594 9 24 3 0.80681534530714016 9 5951 10 7368 17 5663 16 5878 18 7498 2 7364
10671 6.9578693766611774 -6.3471300331477227 31.365460344729819 16 54 22 1.8326051211807901 9 4052 10 5942 17 3889 16 5880
10672 -3.0767494470443881 -5.9217457299632184 31.891546410960053 35 78 26 1.1887922485694384 9 5948 17 5662 16 5883
11270 -10.334353119729462 5.6491268094750327 20.890598826822519 163 201 142 2.0391066078113114 16 10662 18 10656 19 10406 3 10333
10673 -13.385871797066399 -6.2898820220945755 37.580851436797488 28 56 41 0.58264692059406564 9 5967 16 5885 18 6104 19 6027 2 4206
11779 -12.309052329248576 -10.035446875499975 42.041263590573649 72 124 0 0.68300547415432877 10 3931 16 3854 18 4081
10674 10.768150554786336 -6.2163402445273181 31.142352236971799 178 208 129 1.2081326962368646 9 5917 17 5653 16 5892 18 6151 19 7465
10757 7.2178158764088423 9.5957923288394653 18.08215590473074 77 117 44 0.80242706094388017 10 6748 16 6645 18 6871 4 8251
10676 -6.9337200018081635 -5.9514745552911528 36.702630902893198 2 6 10 0.86455803406034715 9 5973 16 5901 18 6132
13370 -11.241990115493799 -63.385377831730054 100.91067173525587 129 117 75 0.58286576460841599 6 18 7 193 8 16 12 224 14 300 2 341 3 162 4 291
10677 9.9088045908973257 -5.8584232577989548 30.840809584597533 13 44 13 0.37841878555517461 17 5666 16 5903 18 6159 19 6134
11268 -5.3030642094129057 -1.7327472336409775 27.45828522260069 153 190 138 0.50327916904743919 10 10385 16 10637 18 10560
10679 5.4265787681550606 -5.1915787171487953 28.874113952098217 16 36 11 0.88900441242235695 1 4013 9 4111 16 5918
10761 -2.3737955907220281 13.454734632136416 21.093485305415573 1 7 6 0.98808069694424638 9 6738 17 6412 16 6671
10680 0.81275751455567558 -3.5474904052658993 16.010558340062925 180 204 176 1.2015802481681996 12 7259 16 5924 18 6171 2 4250 3 5880 4 6027
10681 6.2655019098790303 -4.4514086415056004 28.743264078554791 124 170 93 0.4752732654104122 9 5998 17 5709 16 5947
11787 -23.08921369864477 -7.4412437262203683 39.486016691204071 136 173 7 0.28952211076587964 10 4000 16 3940 18 4154 19 4039
10682 -19.399789446011557 -3.1867753161007819 32.697101821204569 20 52 25 0.15645714159829696 6 6364 8 6194 16 5964
10765 -2.0170635130572609 13.978023324070547 20.426051097183233 24 57 12 1.3957680002260693 9 6783 17 6457 16 6720
10684 11.264879163239932 -3.6776881917641622 28.968995113723242 7 34 11 0.77322192883673324 17 4030 16 5994 9 1608
10686 11.001585305495157 -3.2637189201016996 27.959793216185584 44 91 49 0.43586938014548765 9 4218 16 6005 19 6236
11276 2.5285411280815087 11.914719324450274 17.094341495866544 146 185 104 1.6367034127027309 9 10720 17 10291 16 10682 5 10599
12070 -3.2724852381849843 -6.9007258950574641 34.178905986514273 31 69 39 0.17587839815666642 16 7307 18 7490 4 7579
10833 -9.172702566177902 -4.1187908751772193 35.096243065859859 149 188 133 0.47181752588476539 9 7457 17 7084 16 7388
10688 -0.24310496015518035 -1.9643166980547373 15.706470175124847 0 0 0 1.6847407845398052 8 1686 9 6096
11859 1.844319890719158 10.233360120493501 17.941528168578746 153 187 112 1.0325607440880811 10 6724 18 5200 19 5114 2 6752 11 6115 4 5225
